33.468 895.500 1.000 5 0 1
1259.476 886.617 1.295 6 0 1
479.500 273.000 1.000 0 0 0
1029.500 273.000 1.000 0 0 0
1579.500 273.000 1.000 0 0 0
2129.500 273.000 1.000 0 0 0
1461.500 740.500 1.000 14 0 1
1587.409 894.000 1.000 7 0 1
1485.690 878.500 1.000 4 0 1
1521.591 895.500 1.000 5 0 1
2551.502 574.000 1.000 8 1 0
2679.500 273.000 1.000 0 0 0
2129.500 894.000 1.000 7 0 1
2434.532 895.500 1.000 5 0 1
2632.201 906.500 1.000 13 0 1
2632.201 883.084 1.000 13 0 1
2632.201 859.656 1.000 13 0 1
2632.201 836.229 1.000 13 0 1
2632.201 812.801 1.000 13 0 1
2632.201 790.350 1.000 13 0 1
2632.201 767.898 1.000 13 0 1
2632.201 745.447 1.000 13 0 1
2632.201 722.019 1.000 13 0 1
2632.201 698.591 1.000 13 0 1
2632.201 675.164 1.000 13 0 1
2632.201 652.712 1.000 13 0 1
776.800 899.568 1.295 13 0 1
776.800 869.200 1.295 13 0 1
776.800 838.800 1.295 13 0 1
776.800 808.400 1.295 13 0 1
776.800 778.000 1.295 13 0 1
776.800 747.600 1.295 13 0 1
776.800 717.200 1.295 13 0 1
3186.958 474.162 1.055 10 1 0
4239.028 273.623 1.000 0 0 0
3819.172 273.623 1.000 0 0 0
5082.133 674.162 1.055 10 1 0
5388.500 473.000 1.000 14 0 1
5468.704 885.278 1.335 6 0 1
5608.114 661.000 1.000 1 1 1
6903.667 1532.162 1.055 10 1 0
7147.500 1331.000 1.000 14 0 1
7344.400 1332.000 1.385 2 0 1
7901.200 1332.000 1.385 2 0 1
8335.600 1744.000 1.195 7 0 1
8395.600 1747.200 1.195 6 0 1
7559.600 1759.200 1.195 13 0 1
7559.600 1731.200 1.195 13 0 1
7559.600 1703.200 1.195 13 0 1
7559.600 1675.200 1.195 13 0 1
7559.600 1647.200 1.195 13 0 1
7559.600 1619.200 1.195 13 0 1
8832.800 1330.950 1.060 10 1 0
9336.000 930.000 1.000 14 0 1
10506.214 932.017 1.000 14 0 1
10117.600 1353.500 1.000 5 0 1
10269.600 1336.500 1.000 4 0 1
10332.800 1354.500 1.000 6 0 1
10779.600 1354.500 1.000 6 0 1
11310.800 1352.000 1.000 7 0 1
11548.800 1364.500 1.000 13 0 1
11548.800 1341.200 1.000 13 0 1
11548.800 1318.800 1.000 13 0 1
11548.800 1296.400 1.000 13 0 1
11548.800 1273.200 1.000 13 0 1
11548.800 1251.600 1.000 13 0 1
11548.800 1228.400 1.000 13 0 1
11548.800 1205.200 1.000 13 0 1
11548.800 1182.800 1.000 13 0 1
11548.800 1159.600 1.000 13 0 1
11548.800 1137.200 1.000 13 0 1
11548.800 1114.000 1.000 13 0 1
11267.200 1364.500 1.000 13 0 1
11267.200 1341.200 1.000 13 0 1
11267.200 1318.800 1.000 13 0 1
11267.200 1296.400 1.000 13 0 1
11267.200 1274.000 1.000 13 0 1
11267.200 1250.800 1.000 13 0 1
11267.200 1227.600 1.000 13 0 1
11267.200 1204.400 1.000 13 0 1
13219.600 1364.000 1.000 13 0 1
13219.600 1340.800 1.000 13 0 1
13219.600 1317.600 1.000 13 0 1
13219.600 1294.400 1.000 13 0 1
13219.600 1271.200 1.000 13 0 1
13219.600 1248.000 1.000 13 0 1
13219.600 1224.800 1.000 13 0 1
13219.600 1201.600 1.000 13 0 1
13219.600 1178.400 1.000 13 0 1
13219.600 1155.200 1.000 13 0 1
13219.600 1132.800 1.000 13 0 1
13219.600 1109.600 1.000 13 0 1
13219.600 1086.400 1.000 13 0 1
13219.600 1064.800 1.000 13 0 1
13219.600 1041.600 1.000 13 0 1
13219.600 1018.400 1.000 13 0 1
13219.600 995.200 1.000 13 0 1
13219.600 972.800 1.000 13 0 1
13424.800 735.800 1.040 10 1 0
12908.706 735.576 1.000 14 0 1
892.400 723.330 0.830 11 1 1
2359.600 906.500 1.000 13 1 1
2359.600 884.400 1.000 13 1 1
2359.600 861.200 1.000 13 1 1
2359.600 838.000 1.000 13 1 1
2359.600 815.600 1.000 13 1 1
2359.600 793.200 1.000 13 1 1
2359.600 770.000 1.000 13 1 1
2359.600 746.800 1.000 13 1 1
1475.600 585.425 0.850 1 1 1
2294.800 672.925 0.850 1 1 1
5724.800 738.400 0.870 15 1 1
6500.800 1710.400 1.000 8 1 0
7212.400 1450.000 1.000 8 1 0
13328.800 735.600 1.040 10 1 0
319.600 861.600 0.855 1 1 1
4762.000 909.600 1.000 9 1 0
10576.000 1367.600 1.000 9 1 0
12610.000 1366.800 1.000 9 1 0
13522.400 824.400 0.745 15 1 1
99999.000 99999.000 1.250 45 0 1
